# .PCD v0.7 - Point Cloud Data file format
VERSION 0.7
FIELDS x y z rgba
SIZE 4 4 4 4
TYPE F F F U
COUNT 1 1 1 1
WIDTH 1170
HEIGHT 1
VIEWPOINT 0 0 0 1 0 0 0
POINTS 1170
DATA ascii
-0.15136096 0.46290004 1.5430001 12095606
-0.14842191 0.46290004 1.5430001 12095606
-0.13225715 0.46290004 1.5430001 11963537
-0.12490954 0.46290004 1.5430001 11766144
-0.11374115 0.46348786 1.5430001 12095354
-0.10507096 0.46363479 1.5430001 12161406
-0.095519051 0.46290004 1.5430001 12489093
-0.085232392 0.46290004 1.5430001 12160646
-0.074357912 0.46407565 1.5430001 12226433
-0.064659052 0.46436962 1.5430001 12227453
-0.054372385 0.46583909 1.5430001 12030596
-0.045555241 0.46583909 1.5430001 12687492
-0.036150288 0.46642691 1.5430001 11898757
-0.024981907 0.46583909 1.5430001 12029055
-0.013715556 0.46534929 1.5430001 12555143
-0.0039887079 0.46499935 1.5430001 12358534
0.0040411907 0.46547171 1.5430001 12555130
0.013813525 0.46407565 1.5430001 12752511
0.024981907 0.46290004 1.5430001 12883594
0.034638781 0.46457952 1.5430001 12292739
0.046290003 0.46657383 1.5430001 12424574
0.054372385 0.46877813 1.5430001 12424063
0.064659052 0.46877813 1.5430001 12423303
0.074357912 0.46701476 1.5430001 12555398
0.085232392 0.46730864 1.5430001 12424327
0.095519051 0.46877813 1.5430001 12621442
0.10580572 0.46877813 1.5430001 12358788
0.096988574 0.47171718 1.5430001 12161920
0.10433619 0.47171721 1.5430001 12293511
0.11462286 0.47171718 1.5430001 12292995
0.12197049 0.47171718 1.5430001 12358790
0.15503478 0.47686052 1.5430001 12227199
0.163607 0.47661564 1.5430001 12554363
0.17487335 0.47612581 1.5430001 12292738
0.18604173 0.47406846 1.5430001 12228485
0.19544667 0.47318667 1.5430001 11833725
0.20367599 0.47348061 1.5430001 12359045
0.2135708 0.47661564 1.5430001 12095360
0.2255719 0.47686049 1.5430001 12686468
0.23449403 0.47633567 1.5430001 12226687
0.2454105 0.47759527 1.5430001 11701623
0.26745334 0.47759527 1.5430001 12358536
0.27774 0.47759527 1.5430001 12097163
0.28508759 0.47612572 1.5430001 12031115
0.29478645 0.47641966 1.5430001 11898756
0.30125239 0.47759527 1.5430001 11505019
0.52608955 0.47759527 1.5430001 11833223
0.53490669 0.47759527 1.5430001 11964798
0.5598886 0.47759527 1.5430001 11439501
0.56576669 0.47759527 1.5430001 11373959
0.57311428 0.47759527 1.5430001 11307910
0.2395324 0.48053432 1.5430001 12292997
0.2454105 0.48053432 1.5430001 11899259
0.25422764 0.48053432 1.5430001 12359043
0.2645143 0.48053432 1.5430001 12227976
0.27480096 0.48053432 1.5430001 12161419
0.28214857 0.48053432 1.5430001 12030346
0.29733369 0.48151398 1.5430001 12096126
0.30360365 0.48229772 1.5430001 12095878
0.31496799 0.48347339 1.5430001 12030860
0.324177 0.48170993 1.5430001 11767688
0.33593315 0.48112211 1.5430001 11900032
0.34533811 0.48200381 1.5430001 11701894
0.3534205 0.48126906 1.5430001 12096393
0.36444193 0.48053432 1.5430001 12753796
0.37399384 0.48126906 1.5430001 12426630
0.38501525 0.48053432 1.5430001 12031111
0.39383239 0.48347336 1.5430001 12228235
0.4064703 0.48406115 1.5430001 11833735
0.41587529 0.48641241 1.5430001 11506562
0.42528024 0.48758802 1.5430001 11439494
0.43497908 0.48788196 1.5430001 11637386
0.44526574 0.48494288 1.5430001 11964808
0.45643416 0.48406115 1.5430001 11767177
0.46510431 0.48420814 1.5430001 11701640
0.47465622 0.48151398 1.5430001 11768709
0.48494291 0.48053432 1.5430001 11570823
0.49596429 0.48126906 1.5430001 11637129
0.50572622 0.48221377 1.5430001 11571079
0.51653761 0.48273861 1.5430001 11767947
0.52462 0.48053432 1.5430001 11570812
0.53490669 0.48053432 1.5430001 11702648
0.54519343 0.48053432 1.5430001 11636612
0.55401051 0.48053432 1.5430001 11505024
0.56870574 0.48053432 1.5430001 11176581
0.57458383 0.48053432 1.5430001 11307913
0.58487046 0.48200384 1.5430001 11702403
0.59368765 0.48347336 1.5430001 12096394
0.604954 0.48347339 1.5430001 11504258
0.61646527 0.48273861 1.5430001 11373953
0.62395984 0.48406115 1.5430001 11242114
0.63385463 0.48543271 1.5430001 11177349
0.64512104 0.48714715 1.5430001 11175807
0.65540767 0.48788196 1.5430001 11307652
0.66275531 0.48641241 1.5430001 11438722
0.67451143 0.48641241 1.5430001 11177098
0.68626773 0.48739213 1.5430001 11242635
0.69508481 0.48935145 1.5430001 11242116
0.70537144 0.48935145 1.5430001 11438718
0.71271908 0.48935145 1.5430001 11307138
0.73623151 0.48935145 1.5430001 10914174
0.74798763 0.48935145 1.5430001 10782593
0.75386584 0.48935145 1.5430001 10782593
0.76709151 0.48935145 1.5430001 10848127
0.78325623 0.48935145 1.5430001 10585727
0.79795146 0.48935145 1.5430001 11438974
0.80618078 0.48876363 1.5430001 10717570
0.81499797 0.48817584 1.5430001 10584700
0.85526288 0.48935145 1.5430001 10388351
0.70390195 0.4922905 1.5430001 11307388
0.71712768 0.4922905 1.5430001 11439494
0.72447526 0.4922905 1.5430001 11111048
0.73476189 0.4922905 1.5430001 10979964
0.74357903 0.4922905 1.5430001 10716800
0.78472579 0.4922905 1.5430001 10848640
0.79354286 0.4922905 1.5430001 10979452
0.80382955 0.4922905 1.5430001 11111803
0.82293332 0.4922905 1.5430001 10651781
0.83322001 0.49522957 1.5430001 10323330
0.84644574 0.4922905 1.5430001 10454138
0.85379338 0.4922905 1.5430001 10387587
-0.9119572 0.38554287 1.557 9073765
-0.90464169 0.38627791 1.555091 8810850
-0.89432639 0.38602778 1.5542001 8745311
-0.88479745 0.38533989 1.5515556 9006945
-0.87425935 0.38609678 1.5532666 9138264
-0.86509895 0.38880515 1.557 8942170
-0.85560864 0.38999146 1.557 9402212
-0.84522855 0.38999143 1.557 9139051
-0.83484858 0.38999146 1.557 9007973
-0.82891715 0.38999143 1.557 9074530
-0.90490484 0.3911905 1.5500001 8613725
-0.89457148 0.3911905 1.5500001 8679775
-0.86441505 0.39245585 1.5500001 9139549
-0.85530484 0.39237148 1.5500001 9270368
-0.84526676 0.39237148 1.5500001 9205088
-0.83650798 0.39217466 1.5500001 8942432
-0.82557094 0.393058 1.5535001 8942431
-0.81577218 0.39458787 1.5517501 9467750
-0.80419779 0.39544535 1.5528001 9401440
-0.78828573 0.39709523 1.5500001 9861732
-0.77256858 0.39888859 1.557 9598305
-0.7651543 0.39790004 1.557 9466975
-0.78238094 0.40004763 1.5500001 9072225
-0.77532065 0.4017221 1.5542001 9664354
-0.76482928 0.40360224 1.5523334 9729894
-0.75480837 0.40491739 1.5523335 10058607
-0.74631792 0.40566927 1.5517501 9861229
-0.73564667 0.40705237 1.5542001 9270625
-0.7249667 0.40834525 1.5535001 9729896
-0.72215146 0.41075143 1.557 9663853
-0.71473718 0.41075143 1.557 9927015
-0.70430356 0.41102785 1.55525 10124137
-0.69479984 0.4111937 1.5542001 10321518
-0.68516606 0.41357756 1.5544547 9861737
-0.67529315 0.41549656 1.557 10058859
-0.6653617 0.41672164 1.5540001 9927011
-0.65582943 0.41626641 1.5544547 9796198
-0.64547217 0.41810802 1.5560001 9927535
-0.63466287 0.41816574 1.557 10124906
-0.62428284 0.41816568 1.557 10058092
-0.61538577 0.41964859 1.557 10321002
-0.60500574 0.41964859 1.557 10255986
-0.59759146 0.41964859 1.557 10256244
-0.58424568 0.41964859 1.557 11044209
-0.5783143 0.41964859 1.557 10453101
-0.65247619 0.42071432 1.5500001 10255463
-0.64434075 0.42118931 1.5517501 10058604
-0.63453978 0.42267284 1.5510001 10059105
-0.62442863 0.42219052 1.5500001 9928553
-0.61591363 0.42279392 1.5530001 10124137
-0.60468584 0.42434263 1.5544547 10059366
-0.59471875 0.42493781 1.5546668 9993835
-0.58526576 0.4251059 1.5542001 10388080
-0.57468235 0.42413148 1.5528001 10650229
-0.56519347 0.42641521 1.553182 10058857
-0.55474162 0.42789909 1.5546668 10649451
-0.54437715 0.42789903 1.5546668 10649448
-0.53549337 0.42789903 1.5546668 10453102
-0.52457523 0.42836291 1.5542001 10716273
-0.51444656 0.42737061 1.5549001 10649970
-0.50646275 0.42712605 1.5554445 10715507
-0.49590984 0.42727473 1.557 10913142
-0.48434928 0.42806071 1.55525 11241343
-0.47513193 0.42709738 1.5517501 10847351
-0.4647114 0.42758638 1.5523335 11043702
-0.45523715 0.42854577 1.557 11044726
-0.44634002 0.42854577 1.557 10847349
-0.43595999 0.42854574 1.557 11174523
-0.42610285 0.42905858 1.5535001 11109493
-0.53585714 0.43252382 1.5500001 10650983
-0.50303811 0.43201762 1.5535001 10649712
-0.49495271 0.43194532 1.5540001 10649972
-0.48738191 0.43218637 1.5523334 10978683
-0.46273875 0.43218637 1.5523334 10847353
-0.45432708 0.43251318 1.5526251 10913143
-0.44489422 0.43272993 1.5531112 11110005
-0.43462628 0.43251169 1.5530001 11108731
-0.42486194 0.43372348 1.5507779 11043952
-0.41534171 0.43339524 1.5542001 11044464
-0.40490213 0.4360981 1.553182 11175541
-0.3947362 0.43612733 1.5523335 11306606
-0.38538858 0.43596229 1.5528001 12227966
-0.37558764 0.43409544 1.5514001 11637621
-0.3654424 0.43497667 1.5535001 11175800
-0.35560125 0.43758434 1.5530001 11175802
-0.34693828 0.4380343 1.5528001 11241591
-0.34254003 0.44040859 1.557 11111033
-0.33511266 0.44082534 1.5540001 11044468
-0.32475221 0.44257298 1.5542001 11503479
-0.31521896 0.44248393 1.5538889 11568765
-0.30512023 0.4420138 1.553182 11635830
-0.2952036 0.44411001 1.5516154 11635071
-0.28514564 0.44555029 1.5531112 11635072
-0.27498478 0.44697046 1.5523334 11635321
-0.26463589 0.44795907 1.5523334 11831937
-0.25538096 0.44728574 1.5500001 11701378
-0.24587262 0.44880074 1.55525 11635841
-0.23577431 0.44930574 1.557 12029825
-0.22539428 0.44930574 1.557 12095606
-0.21501431 0.44930574 1.557 11964038
-0.19573715 0.44930574 1.557 12358535
-0.26276189 0.45023811 1.5500001 12290944
-0.2317619 0.45023811 1.5500001 11767164
-0.22585717 0.45023811 1.5500001 11964023
-0.21552381 0.45171434 1.5500001 11964029
-0.20454332 0.45310003 1.5535001 11964031
-0.19469275 0.45401344 1.5519092 12292483
-0.18494049 0.45273098 1.5535001 12358787
-0.17522441 0.45395467 1.5526251 12227708
-0.16501783 0.4557547 1.5530001 12160378
-0.15535 0.45569003 1.5535001 12029309
-0.14450166 0.45661867 1.5525455 12029822
-0.13501512 0.45786738 1.5530001 12686718
-0.12503849 0.45719501 1.5556 12161403
-0.11389334 0.45705399 1.5531112 12489853
-0.10504785 0.45753857 1.5535001 12424316
-0.096559875 0.45786738 1.5530001 12359301
-0.084336191 0.45864904 1.5535001 12884356
-0.13138096 0.46204764 1.5500001 12160648
-0.12392344 0.461696 1.5528001 11898496
-0.11514287 0.46204764 1.5500001 12030078
-0.10480952 0.46204767 1.5500001 12160892
-0.093671814 0.46187183 1.5514001 12423813
-0.084979288 0.46182787 1.5517501 12424068
-0.075455725 0.46160811 1.5535001 12161406
-0.065099046 0.46160808 1.5535001 12423295
-0.054711554 0.46319583 1.5526251 12556164
-0.044813767 0.46310228 1.5544547 12226943
-0.034588855 0.46296486 1.5521001 12030083
-0.025151907 0.46456715 1.5535001 12357762
-0.015533334 0.4638257 1.5535001 12818050
-0.0038500954 0.4615202 1.5542001 12358274
0.0044385716 0.46160811 1.5535001 12554360
0.014634179 0.46221679 1.5538889 12490373
0.025151905 0.46160811 1.5535001 12423302
0.034493335 0.46224666 1.5523334 12424065
0.044419046 0.46491718 1.5546668 12293246
0.054742388 0.46752626 1.5535001 12358275
0.065721527 0.46684787 1.5542001 12554887
0.075285718 0.46500003 1.5500001 12949393
0.084400639 0.46640003 1.5546668 12227468
0.093210004 0.46752626 1.5535001 12621954
0.099351428 0.47006571 1.557 13081477
0.10442644 0.47027546 1.55525 12489863
0.1153162 0.47062513 1.5523334 12489352
0.12546149 0.47142422 1.5538889 12226692
0.13505457 0.47298121 1.5549001 12030077
0.14466295 0.47521168 1.55525 12555658
0.15497929 0.47455311 1.5535001 12359046
0.16574402 0.47423804 1.5523335 12620420
0.17527264 0.47338533 1.5540001 12162176
0.18494049 0.47344431 1.5535001 12162690
0.19485715 0.47090477 1.5500001 12228222
0.20648573 0.47111714 1.5523334 12030592
0.21601005 0.47423804 1.5523335 12227204
0.22532341 0.47414628 1.5531112 12358793
0.2352443 0.47344431 1.5535001 12359041
0.24488641 0.47646141 1.5530001 12293754
0.2550346 0.47800139 1.5538889 12360064
0.26446405 0.47751212 1.5535001 11965311
0.27449048 0.47719485 1.5523335 12030854
0.2839061 0.47318017 1.5526251 11899019
0.2954056 0.47338492 1.5508751 12030601
0.30535245 0.47602865 1.5538889 12096645
0.31584859 0.47896287 1.557 11897997
0.32549325 0.47847396 1.5535001 12161159
0.33510742 0.47737032 1.5528001 11964550
0.34544963 0.47766158 1.5519092 11964808
0.35537174 0.47826642 1.5520002 12228490
0.36428928 0.47956216 1.5517501 12359815
0.37495241 0.47976193 1.5500001 12096131
0.40630287 0.47896287 1.557 11438470
0.42409715 0.47896287 1.557 12096127
0.45671999 0.47896287 1.557 11767688
0.46413431 0.47896287 1.557 11308160
0.47619858 0.47842118 1.55525 11702662
0.48515177 0.47824064 1.5546668 11899277
0.4944368 0.47889179 1.5543751 11635853
0.50656211 0.47916263 1.55525 11701382
0.51468194 0.47852954 1.5556 11833478
0.52474248 0.47763821 1.5544547 11505288
0.53558433 0.47640336 1.5535001 11373954
0.54532933 0.47882408 1.5517501 11571077
0.55536532 0.47868934 1.5542001 11506053
0.5647217 0.47676903 1.5540001 11505285
0.57423812 0.47680956 1.5500001 11439236
0.58506739 0.47941947 1.5530001 11703173
0.59462571 0.47896287 1.557 11440517
0.60055715 0.47896287 1.557 11308932
0.6229524 0.47976193 1.5500001 11307647
0.63911146 0.47896287 1.557 11505026
0.6450429 0.47896287 1.557 11373441
0.65542293 0.47896287 1.557 11307399
0.30922046 0.48232144 1.5535001 11899527
0.31503719 0.48279935 1.5530001 11964810
0.32033333 0.48271433 1.5500001 11899275
0.38702571 0.48192859 1.557 11769221
0.39532956 0.48317906 1.5546668 12031111
0.40427738 0.48306122 1.5535001 11899528
0.41551775 0.48326343 1.5538889 11702918
0.42502385 0.48387757 1.5528001 11504776
0.43478003 0.48358232 1.5528001 11701640
0.44401592 0.48294449 1.5523334 11899273
0.45491117 0.48237759 1.5530001 11767176
0.46456715 0.48232147 1.5535001 11504782
0.47277126 0.48224288 1.5542001 11176832
0.50582409 0.48212501 1.55525 11636098
0.51695013 0.48245239 1.5523334 11964554
0.5204829 0.48192859 1.557 12030600
0.58752382 0.48271433 1.5500001 11636614
0.59538633 0.48240003 1.5528001 11505795
0.60580528 0.48397526 1.55525 11505285
0.61504167 0.48268902 1.5540001 11110793
0.62434906 0.48232144 1.5535001 11242627
0.63472229 0.4829905 1.5528001 11439494
0.64470655 0.4835268 1.5526251 11505288
0.65542483 0.48514956 1.5546668 11438726
0.66621876 0.48669744 1.5560001 11504009
0.67381799 0.48649445 1.5540001 11570062
0.68649572 0.48676109 1.5535001 11177350
0.69467837 0.48730832 1.55525 11242628
0.70464754 0.48740321 1.5543751 11373957
0.71426344 0.4869886 1.555091 11177093
0.72540933 0.48693761 1.55525 10651016
0.73559397 0.48669571 1.5540833 11046022
0.7456767 0.48774526 1.5535001 10913923
0.75342053 0.48750842 1.5511668 10848129
0.76515621 0.48818532 1.5540001 10914176
0.77538359 0.48722953 1.5550001 10914431
0.78479224 0.48816362 1.5542001 10454142
0.79539263 0.48804975 1.55525 10847872
0.80485767 0.48823959 1.5535001 10782080
0.81317359 0.48804975 1.55525 10519681
0.82174796 0.48811302 1.5546668 10585991
0.85728323 0.48811302 1.5546668 10322307
0.8622216 0.48811302 1.5546668 10322558
0.69842577 0.49082571 1.557 11111042
0.7013914 0.49082571 1.557 11307910
0.71890479 0.49157146 1.5500001 11636103
0.72433949 0.49127316 1.5528001 10979719
0.733787 0.49132288 1.5523334 11440263
0.74695241 0.49157146 1.5500001 10716802
0.76532352 0.49132288 1.5523334 10782333
0.77647626 0.49157146 1.5500001 11045249
0.78226733 0.49107429 1.5546668 10848642
0.79598045 0.4911986 1.5535001 10979454
0.82705379 0.4911986 1.5535001 10585213
0.83511877 0.49319467 1.5542001 10453893
0.84604186 0.49400258 1.5550001 10453374
0.85466045 0.491124 1.5542001 10322565
-0.91307819 0.37982863 1.5640001 8680033
-0.90328991 0.37727514 1.5640002 8613213
-0.89818293 0.3798286 1.5640001 8679266
-0.91307819 0.38280767 1.5640001 8482144
-0.90414107 0.38280767 1.5640001 8744541
-0.89818293 0.38280764 1.5640001 9009768
-0.88775623 0.38280764 1.5640001 9402214
-0.86392391 0.38876575 1.5640001 8745311
-0.85498679 0.38876575 1.5640001 9140074
-0.84456009 0.38876575 1.5640001 9007464
-0.83562297 0.38876575 1.5640001 9138788
-0.82519627 0.39323431 1.5640001 9402470
-0.81774861 0.39472383 1.5640001 8875877
-0.80285341 0.3977029 1.5640001 9795173
-0.77455246 0.39621338 1.5640001 9336161
-0.76412576 0.39621335 1.5640001 9468003
-0.79093719 0.40068194 1.5640001 9730407
-0.7849791 0.40068194 1.5640001 9533543
-0.77902097 0.40068194 1.5640001 9598305
-0.76114672 0.40068194 1.5640001 9532517
-0.75578445 0.40246937 1.5640001 10058868
-0.744762 0.40664005 1.5640001 9271914
-0.7343353 0.40664005 1.5640001 9467745
-0.72539812 0.40812957 1.5640001 9531758
-0.71497148 0.40961909 1.5640001 9993059
-0.70454478 0.40961909 1.5640001 10124646
-0.69560766 0.40961909 1.5640001 10321269
-0.68964958 0.40961909 1.5640001 9992557
-0.6836915 0.4125981 1.5640001 9927017
-0.67415851 0.41378975 1.5640001 9992549
-0.6665619 0.41334286 1.5640001 9795427
-0.6553905 0.41408765 1.5640001 9730150
-0.64496386 0.41557717 1.5640001 10059115
-0.63453722 0.41557717 1.5640001 10256233
-0.62411058 0.41657019 1.5640001 10320752
-0.61666292 0.41855621 1.5640001 10583152
-0.6047467 0.41855621 1.5640001 10255986
-0.5972991 0.41855621 1.5640001 10190197
-0.58538288 0.41855621 1.5640001 10912120
-0.5794248 0.41855621 1.5640001 10321265
-0.59432006 0.42153525 1.5640001 10584435
-0.57346672 0.42153525 1.5640001 10387570
-0.5645296 0.42302477 1.5640001 10256234
-0.55559242 0.42302477 1.5640001 10518639
-0.54516572 0.42302477 1.5640001 10584939
-0.53473914 0.42550737 1.5640001 10453361
-0.52580202 0.42550737 1.5640001 10519147
-0.51537526 0.42302477 1.5640001 10584177
-0.50494862 0.42451435 1.5640001 10649970
-0.49452195 0.42600384 1.5640001 10780531
-0.48409528 0.42550737 1.5640001 11177347
-0.47515815 0.42650038 1.5640001 10781043
-0.46175241 0.42749336 1.5640001 10978164
-0.45430481 0.42749339 1.5640001 10716785
-0.44536763 0.42749336 1.5640001 10715762
-0.43494099 0.42749336 1.5640001 11306101
-0.42600384 0.42749336 1.5640001 11306359
-0.44238859 0.4304724 1.5640001 10977910
-0.43345144 0.4304724 1.5640001 11306359
-0.42302477 0.4304724 1.5640001 11373436
-0.41557717 0.43047243 1.5640001 11176050
-0.40515053 0.43345144 1.5640001 11438450
-0.39472383 0.43345147 1.5640001 11307632
-0.38578671 0.43345147 1.5640001 11833996
-0.37536001 0.43345144 1.5640001 11307379
-0.36493337 0.43444449 1.5640001 11110001
-0.3545067 0.43643051 1.5640001 11307125
-0.34348422 0.43762213 1.5640001 11110265
-0.33514291 0.43792003 1.5640001 11372918
-0.32471621 0.43940955 1.5640001 11502715
-0.31428954 0.43940958 1.5640001 11568768
-0.29343623 0.44238859 1.5640001 11701119
-0.28300956 0.44536766 1.5640001 11570299
-0.27556193 0.44636068 1.5640001 11569012
-0.26414225 0.44735369 1.5640001 11832706
-0.25470859 0.44715509 1.5640001 11767682
-0.24651621 0.44760194 1.5640001 11898494
-0.23534477 0.4483467 1.5640001 12358010
-0.22491813 0.4483467 1.5640001 12162174
-0.21449144 0.4483467 1.5640001 12162696
-0.20406479 0.4483467 1.5640001 11964795
-0.19512765 0.4483467 1.5640001 12030342
-0.18768001 0.4483467 1.5640001 12029830
-0.21002287 0.45132574 1.5640001 12161936
-0.20406479 0.45132574 1.5640001 12095867
-0.19214858 0.45132574 1.5640001 12358284
-0.18470097 0.45132574 1.5640001 12030085
-0.17427431 0.4533118 1.5640001 11964292
-0.16474135 0.45311317 1.5640001 12292985
-0.15491046 0.45281526 1.5640001 11766658
-0.14507964 0.45311317 1.5640001 11964279
-0.13480192 0.45579433 1.5640001 12753018
-0.12512001 0.45430481 1.5640001 12359040
-0.11528915 0.45311317 1.5640001 12424321
-0.10575621 0.45529783 1.5640001 12423813
-0.095329531 0.45653909 1.5640001 12425358
-0.084902868 0.45728385 1.5640001 12752770
-0.032769524 0.45728385 1.5640001 12424579
-0.0014895239 0.45728385 1.5640001 12031104
0.0014895239 0.45728385 1.5640001 12489602
0.026811432 0.45728385 1.5640001 12424329
-0.090860955 0.46026289 1.5640001 12490633
-0.081923813 0.46026289 1.5640001 12818818
-0.074476197 0.46026289 1.5640001 12095357
-0.064049534 0.46026289 1.5640001 12620931
-0.055112384 0.46100765 1.5640001 12621704
-0.044685718 0.46026289 1.5640001 12293254
-0.034259051 0.46026289 1.5640001 12161666
-0.025917718 0.46205035 1.5640001 12424071
-0.014895238 0.46175244 1.5640001 12818305
-0.0044685719 0.46026289 1.5640001 11964283
0.0044685719 0.46026289 1.5640001 12423547
0.014895239 0.46026289 1.5640001 12556170
0.025321908 0.46026289 1.5640001 12555917
0.035003811 0.46100765 1.5640001 12620924
0.044472929 0.46281642 1.5640002 12555133
0.055112388 0.46473145 1.5640001 12554886
0.063453726 0.46443358 1.5640001 12751753
0.075369917 0.46502939 1.5640001 12686975
0.084902868 0.46473145 1.5640001 11964806
0.09622325 0.46681681 1.5640001 12621186
0.10575621 0.46920002 1.5640001 12555660
0.11767238 0.46920002 1.5640001 12227463
0.12601373 0.46860418 1.5640001 12292486
0.13554668 0.46771049 1.5640001 12423046
0.14373907 0.46845526 1.5640001 12489606
0.15491048 0.46920002 1.5640001 12751761
0.16533715 0.46920002 1.5640001 12424588
0.17278478 0.46920002 1.5640001 12818833
0.19512765 0.46920002 1.5640001 12359048
0.20108573 0.46920002 1.5640001 12424583
0.1117143 0.47217909 1.5640001 12489865
0.14646986 0.47317213 1.5640001 12490635
0.15491048 0.47217909 1.5640001 12752008
0.16533716 0.47217911 1.5640001 12554888
0.17427431 0.47217911 1.5640001 12555145
0.18470097 0.47217909 1.5640001 12228742
0.19512764 0.47217911 1.5640001 12621442
0.20257527 0.47217909 1.5640001 12227717
0.21598098 0.47217911 1.5640001 12293253
0.22491813 0.47217911 1.5640001 12423814
0.23236573 0.47217909 1.5640001 12161154
0.24577145 0.47515815 1.5640001 12686975
0.25470859 0.47515815 1.5640001 12753295
0.26424152 0.47575393 1.5640001 12294022
0.27630669 0.47441337 1.5640001 11899780
0.28449911 0.47217911 1.5640001 11899530
0.29492575 0.47217909 1.5640001 11965067
0.30609715 0.47292385 1.5640001 12293260
0.31488535 0.47634974 1.5640001 12294023
0.3237232 0.47615117 1.5640001 12030340
0.33514291 0.47515815 1.5640001 12162433
0.34408006 0.47515815 1.5640001 12161930
0.35450667 0.47664765 1.5640001 11834251
0.36493337 0.4781372 1.5640001 12360590
0.37089145 0.47813717 1.5640001 12031624
0.40812957 0.47813717 1.5640001 11504263
0.41557717 0.4781372 1.5640001 11899271
0.42451429 0.4781372 1.5640001 12096383
0.45728385 0.47664765 1.5640001 11768465
0.46473145 0.47664768 1.5640001 11571077
0.47456232 0.47634974 1.5640001 11899526
0.48409528 0.47515815 1.5640001 12030348
0.49303243 0.47615117 1.5640001 11767691
0.50643814 0.47813717 1.5640001 11701895
0.51537526 0.47739241 1.5640001 11505798
0.52580202 0.47515815 1.5640001 11374464
0.53473914 0.47515815 1.5640001 11439995
0.54580414 0.47643489 1.5640002 11440005
0.5541029 0.47664765 1.5640001 11833990
0.57719052 0.47739241 1.5640001 11373437
0.58538288 0.47694555 1.5640001 11768706
0.59432006 0.47694555 1.5640001 11308932
0.60375369 0.47714418 1.5640001 11242628
0.61368388 0.47813717 1.5640001 11504519
0.63751626 0.47813717 1.5640001 11439237
0.64496392 0.47664768 1.5640001 11111551
0.6553905 0.47813717 1.5640001 11242375
0.66432762 0.47813717 1.5640001 10979715
0.36791241 0.48111621 1.5640001 12031113
0.37536001 0.48111621 1.5640001 12096136
0.38578671 0.48111624 1.5640001 11966079
0.39472386 0.48210925 1.5640001 12096900
0.40217146 0.48260576 1.5640001 11965582
0.41557717 0.48111624 1.5640001 11899273
0.42153525 0.48111621 1.5640001 12293774
0.43494096 0.48111621 1.5640001 11965312
0.44596344 0.48230782 1.5640001 11833731
0.45281529 0.48111621 1.5640001 11767941
0.60722923 0.48210925 1.5640001 11505798
0.61517346 0.48111624 1.5640001 11307655
0.62411058 0.48111624 1.5640001 11373190
0.63453722 0.48111621 1.5640001 11439233
0.65390104 0.48111621 1.5640001 11833993
0.66581714 0.48260579 1.5640001 11175815
0.67400956 0.48335049 1.5640001 11307145
0.68518102 0.48707432 1.5640001 11308425
0.69635242 0.48484004 1.5640001 11111296
0.70394897 0.48528692 1.5640001 11176580
0.71497148 0.48409528 1.5640001 11111813
0.72539818 0.48409528 1.5640001 10913411
0.7343353 0.48409528 1.5640001 11044993
0.74565572 0.48469111 1.5640001 11242375
0.75518864 0.48558483 1.5640001 11111051
0.763381 0.48632956 1.5640001 10979972
0.77561641 0.48452085 1.5640002 11176833
0.78535151 0.4837229 1.5640001 10913671
0.79540575 0.48558483 1.5640001 10979461
0.80523664 0.48588273 1.5640001 11110283
0.81625909 0.48707432 1.5640001 10651013
0.82370681 0.48707432 1.5640001 10585737
0.85945535 0.48707432 1.5640001 10585216
0.86541343 0.48707432 1.5640001 10651009
0.79987431 0.49005336 1.5640001 10847875
0.82966483 0.49005336 1.5640001 10454909
0.83413339 0.49005336 1.5640001 10718089
0.84604961 0.4930324 1.5640001 10584961
0.85349721 0.49154288 1.5640001 10256508
-0.9218353 0.37595242 1.5790001 9140831
-0.91429126 0.37511572 1.5755 8548699
-0.90540755 0.37340605 1.574625 8941924
-0.89595377 0.37605959 1.5731668 9073763
-0.9218353 0.38046384 1.5790001 9141352
-0.91882765 0.38046384 1.5790001 8943971
-0.89411396 0.38183686 1.5743334 8941665
-0.88563883 0.38394946 1.5782225 8941662
-0.87519664 0.38505664 1.5779234 8942431
-0.86474353 0.38590354 1.5766668 8876129
-0.85629874 0.38684505 1.5770003 9138276
-0.84546018 0.38702807 1.5760003 8875102
-0.83725905 0.38862336 1.5755 9204581
-0.81807244 0.3894867 1.5790001 9533027
-0.78498864 0.3894867 1.5790001 9335903
-0.86085713 0.39075428 1.572 9469804
-0.85786289 0.39075428 1.572 8811874
-0.83337659 0.39191431 1.5766668 9468260
-0.82525861 0.39312145 1.5755 9598313
-0.81559175 0.39414513 1.5748001 9598820
-0.80549955 0.39687431 1.5755002 9664355
-0.7950967 0.3969304 1.5770912 9271395
-0.78545201 0.3952457 1.5758184 9271139
-0.77557451 0.39454976 1.5776001 9205348
-0.76400197 0.39744687 1.5748 9467489
-0.75473619 0.39912334 1.5755002 9598565
-0.74486238 0.39900059 1.5762 9468006
-0.752464 0.40392914 1.572 9730409
-0.74378049 0.40355071 1.57375 9599331
-0.73526508 0.40414247 1.5764548 9730146
-0.72436816 0.40676266 1.5770912 9861220
-0.71390027 0.40605664 1.5758892 9993058
-0.70523477 0.40544635 1.5763081 9993314
-0.69590771 0.40679377 1.5774447 9927273
-0.68423337 0.40753239 1.5790002 10714743
-0.67521048 0.40753239 1.5790001 10386822
-0.66368133 0.40652987 1.5790002 10124646
-0.65415716 0.40753239 1.5790002 10255964
-0.64663815 0.40753239 1.5790001 10519395
-0.69248784 0.41083357 1.57725 10058092
-0.68421382 0.41112715 1.5755 10517358
-0.67521095 0.41112718 1.5755002 10386033
-0.66470766 0.41112715 1.5755002 9992555
-0.65422004 0.412321 1.5743334 9993063
-0.64520013 0.41262695 1.5755001 10124133
-0.63528156 0.41371128 1.5762004 10189933
-0.62357318 0.41701433 1.5762 10321260
-0.61461717 0.41724381 1.5748001 10058348
-0.60468864 0.41712907 1.5755002 10387571
-0.59412509 0.41593522 1.5766668 10781558
-0.58472419 0.41747674 1.5760001 10321270
-0.57671094 0.41881099 1.5790001 10255987
-0.56453013 0.41896138 1.5790001 10387312
-0.55490583 0.41805908 1.5790002 10650223
-0.54588288 0.41805908 1.5790002 10518639
-0.53635871 0.41856036 1.5790002 10387056
-0.52482957 0.41956291 1.5790001 10649455
-0.51580667 0.41956291 1.5790002 10912367
-0.50979149 0.41956291 1.5790001 10912630
-0.4842267 0.41956291 1.5790001 10979948
-0.47520387 0.41956291 1.5790001 10911861
-0.46768478 0.41956291 1.5790001 10912119
-0.61532575 0.42069712 1.572 10321011
-0.59586287 0.42069712 1.572 11240055
-0.57490289 0.42069712 1.572 10321775
-0.56442285 0.42069715 1.572 10453620
-0.55544007 0.42069715 1.572 10387823
-0.54454309 0.42167068 1.5734 10518379
-0.53480119 0.42406827 1.5758892 10387309
-0.52516341 0.42313099 1.5755002 10584680
-0.51549089 0.4230189 1.5762001 10780786
-0.50443757 0.42336679 1.5763751 10584176
-0.49491358 0.42640114 1.5776001 10649460
-0.4853555 0.42363879 1.5750002 11045506
-0.47483817 0.42414138 1.5748004 11241844
-0.46514294 0.42463079 1.5755001 10714991
-0.45576885 0.42575595 1.5755001 10979445
-0.4452638 0.42650616 1.5755 11240824
-0.43513477 0.42613193 1.5755 11174516
-0.42486119 0.42719302 1.5751112 11306358
-0.41539976 0.42801172 1.5769004 11503732
-0.40440631 0.42902347 1.5762001 10978934
-0.39550194 0.42858574 1.5790002 10846578
-0.41112715 0.43213382 1.5755 11307122
-0.40467358 0.43240407 1.57375 11307383
-0.39535552 0.43221107 1.5750003 11045241
-0.38488546 0.43205667 1.5760003 11110017
-0.37511575 0.43213385 1.5755002 11110779
-0.364961 0.43315268 1.57375 11175802
-0.35486642 0.4350585 1.5760003 11635058
-0.34510621 0.43513483 1.5755 11504758
-0.33516464 0.43612748 1.5763752 11438451
-0.32484737 0.43806043 1.576 11700094
-0.31394786 0.43787217 1.5772501 11306106
-0.30533087 0.43712798 1.5762004 11438202
-0.29482833 0.4380604 1.576 11701114
-0.28572384 0.4376086 1.5790001 11898738
-0.26467049 0.4376086 1.5790001 11768435
-0.32031146 0.44061622 1.5790001 11568257
-0.31730384 0.44061622 1.5790001 11306107
-0.30541715 0.44165716 1.572 11700852
-0.2933979 0.44204783 1.5734 11766650
-0.28537619 0.44230825 1.5743334 11635064
-0.27494967 0.44325963 1.5736157 12095613
-0.26514879 0.44263968 1.5745456 11965058
-0.25454646 0.44289404 1.5737503 11702395
-0.24430595 0.44364259 1.5737503 12030586
-0.23492095 0.44409505 1.5757697 12424318
-0.224609 0.44471484 1.5746926 12226944
-0.214727 0.44596699 1.576667 11899774
-0.20538327 0.44630119 1.576667 12030075
-0.19435553 0.44721106 1.575 11833218
-0.18469302 0.44747078 1.5766668 11898745
-0.17669763 0.44888717 1.5790001 12227447
-0.16541907 0.44963908 1.5790001 11701379
-0.1548924 0.44963908 1.5790002 12423296
-0.14586954 0.44963908 1.5790002 12096112
-0.13534287 0.44963908 1.5790001 12621684
-0.1248162 0.44963908 1.5790002 12490110
-0.11729715 0.44963908 1.5790001 12227204
-0.10526668 0.44963908 1.5790001 12489097
-0.094740003 0.44963908 1.5790002 12227210
-0.18265143 0.45063999 1.572 11701110
-0.17456685 0.45183775 1.572 11832442
-0.16558401 0.45123887 1.572 11964029
-0.15420571 0.45064002 1.572 12423556
-0.1444743 0.45138857 1.572 11965306
-0.13517588 0.45352805 1.5751114 12293243
-0.12453952 0.4531405 1.5755 12424582
-0.11491644 0.45289356 1.5772501 12358021
-0.10517376 0.45352808 1.5751113 12423564
-0.094505183 0.45452765 1.5751112 12491653
-0.085504562 0.45452765 1.5751114 12621443
-0.075023815 0.45613813 1.5755002 12292990
-0.064472705 0.45730194 1.5743334 12490372
-0.055476513 0.45730194 1.5743335 12555908
-0.044980954 0.45730191 1.5743335 12358792
-0.034927759 0.45663884 1.5750002 12424331
-0.025898214 0.4582704 1.5763751 12687240
-0.014169312 0.45786202 1.5751112 12621443
-0.0048732143 0.45701179 1.574625 12425088
0.0044925399 0.45746431 1.5731667 12621440
0.014982263 0.45837989 1.572875 12555914
0.02553143 0.45898223 1.5766667 12162188
0.033010479 0.45914239 1.5755 13014914
0.045014288 0.45914242 1.5755 12555392
0.056141146 0.45904627 1.5762 12688004
0.063843578 0.45890215 1.57725 12424072
0.070679054 0.45866194 1.5790001 12621962
-0.022457143 0.46261716 1.572 12949385
-0.017491113 0.46230131 1.5743334 12686208
0.037595239 0.46166953 1.5790001 12883839
0.047908571 0.46261716 1.572 12685951
0.054704051 0.46238026 1.57375 13015434
0.065093331 0.46223813 1.5748 12883342
0.075023144 0.46304294 1.5755001 12686981
0.086090669 0.46223813 1.5748001 12161664
0.094103217 0.46376058 1.5746251 12227212
0.10484106 0.46686268 1.5751114 12358537
0.11616023 0.4683755 1.57375 11964804
0.12423274 0.46727824 1.5763752 12161159
0.13511536 0.4654035 1.5763752 12424067
0.14583963 0.46600965 1.5746253 12161668
0.15443461 0.4662981 1.5743335 12358794
0.16443186 0.46729919 1.5743334 12359050
0.17555571 0.46814525 1.5755002 12292489
0.18401501 0.467915 1.57725 12095362
0.19435553 0.46821105 1.575 11964551
0.20514639 0.46705875 1.5769001 12490380
0.214727 0.46698919 1.576667 12555657
0.22395736 0.46742573 1.575889 12424581
0.2317435 0.46799177 1.5766668 12292989
0.11378285 0.47160003 1.572 12753807
0.17816001 0.47160003 1.572 12621188
0.1850781 0.471237 1.5748 12359301
0.19013713 0.47160003 1.572 11701642
0.20660572 0.47160003 1.572 12227211
0.21409145 0.47160003 1.572 12293255
0.22457144 0.47160003 1.572 12424582
0.23640063 0.47179651 1.5743334 12358530
0.24439652 0.47229561 1.5743335 12293250
0.25461936 0.47282314 1.5751822 12490375
0.26486477 0.47213528 1.5748001 12096391
0.27494201 0.47222605 1.5741001 11965324
0.28508717 0.47114623 1.5755002 12162182
0.29486096 0.471237 1.5748 12227210
0.30486798 0.4712975 1.5743334 12424067
0.31612939 0.47344717 1.5731667 12556421
0.32560337 0.4741472 1.5755 12293776
0.33572999 0.4736222 1.5737503 12228231
0.34585449 0.47423658 1.5748 12096904
0.35543445 0.47478566 1.5763752 11833739
0.36548248 0.47563139 1.5745456 12162950
0.37490824 0.47538185 1.5746253 11834247
0.38369027 0.47736835 1.57375 11899781
0.39399812 0.47971529 1.5790001 11965059
0.40557361 0.47918361 1.57725 12030856
0.41437498 0.47648144 1.574 11964806
0.42581972 0.47729498 1.5743335 11767936
0.43411931 0.47767979 1.5772501 12294789
0.44512764 0.47971529 1.5790001 11834240
0.45664644 0.47843504 1.57725 11768454
0.46514434 0.4741472 1.5755 12161666
0.47494262 0.4740833 1.5760001 12425599
0.48535556 0.47421107 1.575 11767693
0.49495357 0.47392195 1.5772501 11702151
0.5047462 0.47726321 1.5780002 11635845
0.51568031 0.47751489 1.5760001 11505543
0.52516341 0.47464845 1.5755 11636618
0.53498071 0.4740833 1.5760001 11833993
0.54496002 0.4745943 1.572 11506312
0.5564096 0.47670764 1.5790001 11767689
0.5652042 0.47586331 1.5751112 11964810
0.57458955 0.47596121 1.5743334 11636609
0.58518243 0.47514755 1.5755002 11438973
0.59534693 0.47646117 1.5762001 11570047
0.60520506 0.47452959 1.5751114 11504519
0.61519194 0.47664687 1.5755 11504772
0.62357318 0.47706005 1.5762 11307649
0.63566613 0.47850513 1.5766668 11307141
0.64520144 0.47564876 1.5755 11045253
0.65459037 0.47500756 1.5746253 11242631
0.66421121 0.47619602 1.5751112 11177091
0.67521048 0.47871274 1.5790002 11111805
0.68423337 0.47971529 1.5790002 10914177
0.69175243 0.47971529 1.5790001 10848136
0.81506479 0.47971529 1.5790001 10717054
0.37728 0.48058286 1.572 12097162
0.38476574 0.48058289 1.572 12031360
0.39684799 0.48203775 1.5748 12228483
0.40372953 0.48158097 1.572 11767692
0.43566859 0.48058289 1.572 12162437
0.44465145 0.48058289 1.572 11899522
0.45363432 0.48058289 1.572 11768197
0.50304002 0.48058286 1.572 12096399
0.62430859 0.48058289 1.572 11372933
0.63329142 0.48058289 1.572 11504260
0.67596 0.48133144 1.572 10979713
0.68419433 0.48357719 1.572 11111057
0.69441837 0.48404962 1.5755001 11045511
0.70522058 0.48315006 1.5755002 11177089
0.71422333 0.48315006 1.5755002 11242882
0.72553343 0.48368829 1.5772501 11045506
0.73522997 0.48315006 1.5755 11111299
0.74486232 0.48366615 1.5762 11243141
0.75473619 0.48315001 1.5755 11046025
0.76563877 0.48363879 1.575 10979969
0.77467322 0.484918 1.5763751 11110783
0.78147972 0.48372543 1.5790002 11044991
0.79852289 0.4857305 1.5790001 11242385
0.80608755 0.48425597 1.5770003 11044991
0.81601757 0.48516321 1.5762001 10716800
0.82496583 0.4852939 1.5763751 10454397
0.83538604 0.48764974 1.5755001 10520192
0.84447259 0.48791948 1.5774446 10585992
0.85640162 0.48851272 1.5766668 10256507
0.86478466 0.48653579 1.5748004 10519423
0.87291902 0.48400792 1.5766668 10585728
0.84588575 0.49256 1.572 10388355
0.85376763 0.49215284 1.5755 10322556
-0.92441154 0.37308764 1.5860001 8943203
-0.91988003 0.37308764 1.5860001 8285532
-0.90326476 0.37308764 1.5860001 8876136
-0.89571238 0.37686384 1.5860001 8876392
-0.88513905 0.37912956 1.5860001 9008226
-0.87154484 0.37912956 1.5860001 8941418
-0.8685239 0.37912956 1.5860001 9138022
-0.89269149 0.3821505 1.5860001 9468264
-0.87456578 0.3821505 1.5860002 9269860
-0.86550295 0.3821505 1.5860002 9204067
-0.85557687 0.38387674 1.5860002 9335649
-0.84360099 0.38592669 1.5860001 9203294
-0.83529341 0.38819239 1.5860002 9074530
-0.82407272 0.38689771 1.5860002 9533544
-0.8131398 0.38617843 1.5860002 9073249
-0.80546153 0.38554907 1.5860002 8874845
-0.7966252 0.38698402 1.5860001 9205087
-0.7884686 0.38819239 1.5860001 9466976
-0.83378291 0.39121336 1.5860001 9401955
-0.82774103 0.39121336 1.5860001 9663855
-0.81339145 0.39196861 1.5860001 9599333
-0.80508393 0.3927238 1.5860002 9204577
-0.79602098 0.39121336 1.5860002 9401964
-0.78242671 0.39121336 1.5860001 9270885
-0.77688831 0.39322734 1.5860002 9074019
-0.76581144 0.39725527 1.5860002 9467747
-0.75423115 0.39624822 1.5860002 9796454
-0.74466485 0.39574474 1.5860002 9993580
-0.7356019 0.3957448 1.5860002 10059372
-0.72653908 0.39725527 1.5860002 9729892
-0.71294475 0.39725524 1.5860001 9927015
-0.70237148 0.39725524 1.5860001 10059626
-0.69935054 0.39725524 1.5860001 9928554
-0.74164379 0.40027618 1.5860001 10322798
-0.73484665 0.40103143 1.5860001 9993327
-0.72502857 0.40178668 1.5860002 9860965
-0.71521044 0.40103143 1.5860001 9993318
-0.70463717 0.40103143 1.5860001 9862242
-0.69465131 0.40296152 1.5860002 9993065
-0.68484992 0.40510973 1.5860001 10649719
-0.67593813 0.40707338 1.5860001 10058623
-0.66460955 0.40631813 1.5860001 10387302
-0.65403628 0.40631813 1.5860002 10387568
-0.6449734 0.40782863 1.5860001 10124658
-0.63591051 0.40933907 1.5860002 10124899
-0.62986863 0.40933907 1.5860001 10453593
-0.61325336 0.40933907 1.5860001 10058350
-0.63389659 0.41336703 1.5860002 10321509
-0.62533724 0.41538095 1.5860002 10321257
-0.61415958 0.41417262 1.5860001 9992553
-0.60570097 0.41387051 1.5860002 10321256
-0.59512764 0.41311526 1.5860001 10518124
-0.58455437 0.41538101 1.5860002 10584689
-0.57549149 0.41840193 1.5860002 10124913
-0.56522024 0.41658935 1.5860001 10583403
-0.55434483 0.41538101 1.5860002 10715752
-0.54528189 0.41538101 1.5860002 10518889
-0.53406125 0.41667569 1.5860002 10452596
-0.52413529 0.41840193 1.5860002 10847092
-0.51507241 0.41840193 1.5860002 10913137
-0.48486289 0.41840193 1.5860002 10780779
-0.47580001 0.41840193 1.5860002 11042672
-0.52715623 0.42142287 1.5860001 10518642
-0.50600958 0.4214229 1.5860002 10846577
-0.49634248 0.42323542 1.5860001 10979189
-0.46371624 0.4214229 1.5860002 11109999
-0.45465335 0.42323542 1.5860001 11175287
-0.44634575 0.42368856 1.5860001 11437436
-0.43501717 0.42444381 1.5860001 11174774
-0.42595428 0.42444381 1.5860001 11307379
-0.41236001 0.42746478 1.5860001 11109750
-0.40933907 0.42746478 1.5860001 10978145
-0.39121336 0.43048573 1.5860001 11371895
-0.38517147 0.43048573 1.5860002 11174774
-0.37459812 0.43048573 1.5860001 11176832
-0.36402476 0.43249974 1.5860002 11504252
-0.35496193 0.4335067 1.5860002 11634813
-0.34589908 0.4335067 1.5860002 11570291
-0.33532572 0.43426195 1.5860001 11635826
-0.32475239 0.43652767 1.5860002 11504252
-0.31568953 0.43652767 1.5860002 11503479
-0.30511621 0.43426192 1.5860001 11504509
-0.29454288 0.43652767 1.5860002 11635835
-0.28548002 0.43803811 1.5860001 11833457
-0.27641717 0.43954858 1.5860002 12293770
-0.25527048 0.43954858 1.5860002 11965041
-0.24469715 0.43954858 1.5860001 12358788
-0.23412383 0.43954858 1.5860001 12423558
-0.22657144 0.43954858 1.5860001 12160900
-0.21448763 0.43954858 1.5860001 11833223
-0.20844573 0.43954858 1.5860001 12489872
-0.23412383 0.44256955 1.5860001 12554375
-0.22204001 0.44256955 1.5860001 12095105
-0.2159981 0.44256958 1.5860002 11832963
-0.20441779 0.44357654 1.5860002 12161660
-0.19485144 0.44408005 1.5860002 11964281
-0.18578857 0.4455905 1.5860002 12161401
-0.17521524 0.44785619 1.5860001 12096385
-0.16464192 0.44861144 1.5860002 11767937
-0.15557906 0.44861144 1.5860002 12424062
-0.14500572 0.44861144 1.5860001 12225651
-0.13443238 0.44861144 1.5860002 12620663
-0.12536953 0.44861144 1.5860002 12292733
-0.11479621 0.44861144 1.5860001 12357766
-0.10422286 0.44861144 1.5860002 12555137
-0.095160007 0.447101 1.5860002 12226948
-0.084586672 0.44861144 1.5860001 12883846
-0.11328572 0.45163238 1.5860001 12225412
-0.084586665 0.45163238 1.5860001 12883851
-0.075523809 0.45163238 1.5860001 12753037
-0.064950481 0.45465335 1.5860002 12819337
-0.055887621 0.45465335 1.5860002 12687490
-0.045314286 0.45465335 1.5860001 12096390
-0.034740951 0.45465335 1.5860002 12161415
-0.022657143 0.45767429 1.5860001 12490376
-0.014097779 0.45465335 1.5860002 12490115
-0.005286667 0.4538981 1.5860001 13147012
0.0045314291 0.4566673 1.5860002 12818310
0.015104762 0.45767429 1.5860001 12817548
0.025678096 0.45767432 1.5860002 12424071
0.031720001 0.45767429 1.5860001 12752517
0.057398096 0.45767429 1.5860001 12688002
0.064950481 0.45767432 1.5860002 12753025
0.022657143 0.46069524 1.5860001 11899016
0.037761904 0.46069524 1.5860001 13212557
0.075523809 0.46069524 1.5860001 12292997
0.084284574 0.46129942 1.5860001 12162177
0.095160007 0.46170223 1.5860002 12161422
0.10422286 0.4647232 1.5860002 12358024
0.11479621 0.4677442 1.5860002 12161410
0.12612477 0.46447143 1.5860001 12226950
0.13503657 0.46250781 1.5860001 12359296
0.14500572 0.46371621 1.5860001 12294016
0.15557906 0.46371621 1.5860002 12227201
0.16539715 0.46522671 1.5860001 12293256
0.17521526 0.46522671 1.5860002 12162173
0.1857886 0.46522674 1.5860002 12095606
0.19485144 0.46673721 1.5860002 12291710
0.20089334 0.46673718 1.5860001 12292491
0.21901906 0.46371621 1.5860001 12819329
0.22506097 0.4647232 1.5860002 12621705
0.23487906 0.46749243 1.5860001 11898754
0.24469715 0.46824768 1.5860002 12293255
0.25451523 0.4690029 1.5860001 12161929
0.26433337 0.46975812 1.5860002 12227219
0.27490667 0.46975812 1.5860001 12227209
0.28548002 0.46975812 1.5860002 12228481
0.46522671 0.46975812 1.5860001 12425105
0.48486289 0.46975812 1.5860002 11899783
0.49543619 0.46975812 1.5860001 11506052
0.50600958 0.46975812 1.5860002 11440522
0.51507246 0.46975812 1.5860002 11702662
0.31568953 0.4727791 1.5860002 12884363
0.32173145 0.47277907 1.5860001 12424331
0.33683619 0.4727791 1.5860002 12292231
0.34589908 0.4727791 1.5860002 12095105
0.35496193 0.4727791 1.5860002 11701634
0.36402476 0.4727791 1.5860002 12227202
0.37006667 0.47277907 1.5860001 11965306
0.38668191 0.47882098 1.5860001 12162180
0.3942343 0.47882098 1.5860002 12227204
0.4059405 0.47693291 1.5860002 11833991
0.4147768 0.47459164 1.5860001 11767679
0.42444381 0.47655526 1.5860001 11636357
0.43592349 0.47640419 1.5860001 12360839
0.4455905 0.47731051 1.5860002 12360592
0.4538981 0.47806573 1.5860001 11966343
0.46432042 0.47459164 1.5860001 12293261
0.47580004 0.4727791 1.5860002 11964292
0.48486289 0.4727791 1.5860002 11767430
0.49543619 0.47277907 1.5860001 11702152
0.5070166 0.47479305 1.5860002 11571078
0.51507241 0.47428954 1.5860002 11899784
0.52353114 0.47398743 1.5860001 11635856
0.53470862 0.47277907 1.5860001 11768204
0.5458861 0.47398743 1.5860001 11833996
0.55374062 0.47459164 1.5860001 11637388
0.56491816 0.47428954 1.5860002 11636874
0.57549155 0.4727791 1.5860002 11636356
0.58395016 0.47398743 1.5860001 11373951
0.59613466 0.47428954 1.5860002 11504771
0.60570097 0.4727791 1.5860002 11570566
0.61677778 0.47378606 1.5860002 11504772
0.62443095 0.47519585 1.5860001 11373445
0.63591051 0.47731051 1.5860002 11176574
0.6449734 0.47428954 1.5860002 11373960
0.65403622 0.4727791 1.5860002 10978430
0.66551584 0.47338325 1.5860001 11439492
0.67518294 0.4752965 1.5860002 11111047
0.68424577 0.47731051 1.5860002 11045508
0.69481903 0.47731051 1.5860002 10979458
0.70463717 0.47806573 1.5860001 11111042
0.71445525 0.47882098 1.5860002 11177087
0.72653913 0.47882098 1.5860002 10979713
0.7356019 0.47882098 1.5860002 10979717
0.74315429 0.47882098 1.5860001 11045254
0.81716764 0.47882098 1.5860001 10520191
0.82169914 0.47882098 1.5860001 10717310
0.40027618 0.48184192 1.5860001 12096645
0.69935054 0.48184192 1.5860001 10518921
0.70539248 0.48184192 1.5860002 11177091
0.71445531 0.48184192 1.5860002 11177085
0.72502863 0.48184192 1.5860001 10979711
0.7356019 0.48184192 1.5860002 10979464
0.74542004 0.48259714 1.5860001 10979973
0.76581144 0.48184192 1.5860002 10979709
0.77336383 0.48184192 1.5860001 11111038
0.78897208 0.48284888 1.5860002 11111039
0.79602098 0.48335236 1.5860002 10782336
0.80447972 0.48305032 1.5860001 10979456
0.81263626 0.48184192 1.5860001 10782584
0.82623053 0.48184192 1.5860002 10519678
0.83378291 0.48486286 1.5860001 10059638
0.85644007 0.48788381 1.5860002 10059134
0.86550295 0.48335239 1.5860002 10914181
0.87381053 0.48259717 1.5860001 10388351
0.88060766 0.48184192 1.5860001 10323071
-0.9138934 0.37193337 1.5940001 9402471
-0.9047848 0.37345147 1.5940001 8678762
-0.89415824 0.37648761 1.5940001 9072999
-0.88656771 0.37800574 1.5940001 9270883
-0.87594104 0.37648767 1.5940001 9139042
-0.86835051 0.37800574 1.5940001 9270107
-0.88201338 0.38104191 1.5940001 9401960
-0.87897724 0.38104191 1.5940001 9336176
-0.8653143 0.38104191 1.5940001 9335140
-0.85620576 0.38256001 1.5940001 9335137
-0.84254289 0.38711432 1.5940001 9138786
-0.83495241 0.38635528 1.5940001 9204835
-0.82356668 0.38483718 1.5940001 8942690
-0.81597626 0.38180098 1.5940001 8810332
-0.80459046 0.38331908 1.5940001 9401694
-0.79472291 0.38635525 1.5940001 9401953
-0.78485531 0.39015049 1.5940002 9533799
-0.77574676 0.39521083 1.5940002 9468003
-0.76613212 0.39521083 1.5940001 9665644
-0.75601149 0.39318669 1.5940001 9928026
-0.73445457 0.39440116 1.5940001 9532519
-0.72352427 0.39743739 1.5940001 9861477
-0.71502292 0.39774096 1.5940001 9927014
-0.70895052 0.39925906 1.5940001 9993833
-0.6952877 0.39925906 1.5940001 9993577
-0.68769717 0.39925906 1.5940001 10255983
-0.69225144 0.40229526 1.5940001 10124652
-0.68466097 0.40381333 1.5940001 10453362
-0.67555237 0.40533146 1.5940002 10125678
-0.66492575 0.40533143 1.5940001 10190179
-0.65429908 0.40533146 1.5940002 9992552
-0.64367241 0.40836766 1.5940001 9993580
-0.63608193 0.40836769 1.5940002 10125164
-0.61634672 0.40836766 1.5940001 9993579
-0.63000959 0.41292191 1.5940001 10387049
-0.62393713 0.41292197 1.5940001 10255985
-0.61179239 0.41140383 1.5940001 10650983
-0.60572004 0.41140383 1.5940002 10321257
-0.59458733 0.41342795 1.5940002 10387307
-0.58143049 0.41747621 1.5940001 10452597
-0.57535815 0.41747624 1.5940002 10452340
-0.56473148 0.41444001 1.5940001 10780003
-0.5541048 0.41444001 1.5940002 10584685
-0.54499626 0.41444001 1.5940002 10387314
-0.53588766 0.41444001 1.5940002 10715254
-0.52526098 0.41747621 1.5940001 10649966
-0.51615238 0.41595811 1.5940001 10913389
-0.49034482 0.41747621 1.5940001 11109224
-0.48427242 0.41747624 1.5940002 11174762
-0.47668195 0.41747621 1.5940001 11174245
-0.51159811 0.42051241 1.5940001 10912882
-0.50552577 0.42051241 1.5940002 10912101
-0.49717623 0.42203048 1.5940001 10978672
-0.47212765 0.42051241 1.5940001 11174003
-0.46605524 0.42051241 1.5940002 11503988
-0.4569467 0.42354858 1.5940001 11109748
-0.44480193 0.42354858 1.5940002 11305852
-0.42203051 0.42658478 1.5940001 11636344
-0.40533146 0.42962098 1.5940002 10978665
-0.39470476 0.42810288 1.594 11043693
-0.38407812 0.42962098 1.5940002 11437439
-0.37496957 0.42962098 1.5940002 11373182
-0.36889714 0.42962098 1.5940001 11569785
-0.36434287 0.43265718 1.5940001 11438459
-0.35523432 0.43265718 1.5940001 11306872
-0.34460765 0.43265718 1.5940002 11371372
-0.33549911 0.43366927 1.5940002 11701361
-0.3248724 0.43569335 1.5940001 11438708
-0.31576383 0.43569335 1.5940001 11438452
-0.30210099 0.43569335 1.5940001 11702144
-0.29602858 0.43569335 1.5940002 11570558
-0.28388381 0.43872952 1.5940002 11899509
-0.27477524 0.43872952 1.5940002 11636349
-0.26566669 0.43872952 1.5940002 11768181
-0.25503999 0.43872952 1.5940001 12095864
-0.24441336 0.43872952 1.5940002 12161150
-0.23530477 0.43872952 1.5940002 12555908
-0.2277143 0.43872952 1.5940001 11964032
-0.21556953 0.43872952 1.5940001 11832453
-0.23530479 0.44176576 1.5940001 12488843
-0.22164191 0.44176576 1.5940001 11832703
-0.20342478 0.44176576 1.5940001 12161407
-0.19583428 0.44176576 1.5940002 11965050
-0.1861185 0.4441947 1.5940001 12161659
-0.17458098 0.44783816 1.5940002 12226945
-0.16547239 0.44783816 1.5940002 12293243
-0.15383366 0.44682607 1.5940001 12489344
-0.14497809 0.44707909 1.5940001 12029053
-0.13450326 0.44662362 1.5940001 12358263
-0.12600192 0.44783816 1.5940002 12292478
-0.11537524 0.44783813 1.5940001 12424586
-0.10398952 0.44707909 1.5940001 12490114
-0.095640004 0.44480193 1.5940002 12424835
-0.085924201 0.44723088 1.5940001 12818057
-0.077422865 0.44783813 1.5940001 12883590
-0.073627628 0.45163336 1.5940001 12752523
-0.065278098 0.45391053 1.5940002 12358528
-0.054651435 0.4539105 1.5940001 12752510
-0.044632003 0.45269606 1.5940001 12161671
-0.036434285 0.4539105 1.5940001 12161158
-0.025807623 0.4569467 1.5940002 12358788
-0.015180953 0.4539105 1.5940001 12359297
-0.003947048 0.4520888 1.5940001 13015935
0.0051615243 0.455125 1.5940001 12686471
